# This PCD file was generated using the MATLAB® pcwrite function
# from Computer Vision Toolbox®.
# .PCD v.7 - Point Cloud Data file format
VERSION .7
FIELDS x y z
SIZE 4 4 4
TYPE F F F
COUNT 1 1 1
WIDTH 1591
HEIGHT 1
VIEWPOINT 0 0 0 1 0 0 0
POINTS 1591
DATA ascii
-0.472873 -0.086161 -1.690392
-0.472870 -0.083710 -1.690612
-0.472851 -0.082874 -1.690444
-0.472849 -0.085027 -1.690513
-0.472830 -0.084809 -1.690354
-0.472772 -0.084324 -1.690450
-0.472768 -0.085483 -1.690401
-0.472668 -0.083015 -1.690548
-0.472645 -0.085774 -1.690456
-0.472640 -0.086004 -1.690405
-0.472603 -0.086021 -1.690396
-0.472598 -0.084635 -1.690808
-0.472562 -0.083629 -1.690574
-0.472518 -0.082924 -1.690465
-0.472517 -0.083483 -1.690362
-0.472491 -0.083690 -1.690389
-0.472433 -0.084067 -1.690393
-0.472342 -0.083970 -1.690618
-0.472321 -0.084163 -1.690476
-0.472306 -0.084717 -1.690492
-0.472296 -0.084202 -1.690431
-0.472206 -0.085899 -1.690325
-0.472174 -0.084775 -1.690431
-0.472158 -0.085259 -1.690468
-0.472053 -0.085898 -1.690678
-0.472040 -0.084975 -1.690486
-0.472014 -0.083254 -1.690330
-0.472012 -0.083338 -1.690537
-0.472003 -0.085849 -1.690665
-0.471991 -0.086391 -1.690385
-0.471990 -0.084810 -1.690479
-0.471972 -0.084436 -1.690363
-0.471968 -0.085564 -1.690350
-0.471891 -0.084037 -1.690432
-0.471881 -0.084625 -1.690643
-0.471854 -0.083310 -1.690349
-0.471780 -0.083032 -1.690291
-0.471774 -0.083740 -1.690472
-0.471743 -0.085977 -1.690348
-0.471662 -0.085010 -1.690394
-0.471643 -0.082723 -1.690514
-0.471642 -0.084008 -1.690457
-0.471554 -0.086150 -1.690534
-0.471532 -0.085555 -1.690596
-0.471518 -0.082694 -1.690450
-0.471499 -0.082776 -1.690388
-0.471492 -0.084440 -1.690727
-0.471416 -0.083668 -1.690367
-0.471339 -0.085633 -1.690544
-0.471335 -0.085193 -1.690556
-0.471324 -0.084443 -1.690375
-0.471220 -0.083329 -1.690559
-0.471214 -0.085253 -1.690390
-0.471171 -0.083675 -1.690369
-0.471168 -0.084957 -1.690392
-0.471128 -0.085610 -1.690296
-0.471098 -0.085967 -1.690726
-0.471026 -0.086092 -1.690318
-0.471024 -0.084588 -1.690671
-0.471006 -0.083098 -1.690309
-0.471004 -0.082877 -1.690334
-0.471004 -0.085955 -1.690325
-0.470994 -0.084558 -1.690529
-0.470952 -0.086228 -1.690793
-0.470946 -0.084774 -1.690387
-0.470916 -0.083854 -1.690466
-0.470883 -0.083716 -1.690396
-0.470862 -0.086231 -1.690296
-0.470805 -0.083153 -1.690451
-0.470673 -0.085418 -1.690665
-0.470606 -0.085938 -1.690311
-0.470568 -0.085306 -1.690431
-0.470563 -0.085621 -1.690430
-0.470522 -0.082976 -1.690302
-0.470509 -0.084062 -1.690433
-0.470505 -0.085841 -1.690461
-0.470498 -0.085363 -1.690419
-0.470434 -0.083377 -1.690499
-0.470400 -0.086354 -1.690339
-0.470399 -0.085366 -1.690324
-0.470385 -0.086029 -1.690425
-0.470340 -0.086077 -1.690579
-0.470315 -0.083508 -1.690408
-0.470309 -0.084110 -1.690358
-0.470295 -0.083710 -1.690346
-0.470257 -0.086291 -1.690604
-0.470213 -0.083541 -1.690334
-0.470137 -0.083965 -1.690349
-0.473860 -0.082176 -1.690457
-0.473846 -0.079072 -1.690417
-0.473844 -0.079071 -1.690214
-0.473843 -0.081905 -1.690310
-0.473800 -0.081173 -1.690577
-0.473767 -0.081287 -1.690510
-0.473756 -0.082380 -1.690251
-0.473742 -0.079188 -1.690304
-0.473712 -0.079683 -1.690370
-0.473702 -0.082038 -1.690557
-0.473647 -0.079135 -1.690429
-0.473624 -0.080161 -1.690320
-0.473624 -0.078839 -1.690599
-0.473599 -0.079472 -1.690383
-0.473598 -0.082307 -1.690298
-0.473594 -0.081979 -1.690419
-0.473548 -0.079706 -1.690320
-0.473542 -0.079926 -1.690372
-0.473489 -0.080407 -1.690436
-0.473456 -0.080613 -1.690306
-0.473442 -0.081371 -1.690402
-0.473386 -0.082102 -1.690281
-0.473306 -0.081738 -1.690253
-0.473256 -0.078817 -1.690236
-0.473209 -0.078819 -1.690268
-0.473199 -0.079332 -1.690229
-0.473167 -0.081864 -1.690554
-0.473160 -0.079440 -1.690213
-0.473122 -0.080237 -1.690629
-0.473112 -0.080703 -1.690324
-0.473061 -0.079949 -1.690210
-0.473031 -0.078824 -1.690535
-0.473022 -0.081901 -1.690480
-0.473015 -0.080001 -1.690288
-0.472984 -0.081856 -1.690523
-0.472946 -0.080973 -1.690546
-0.472923 -0.079299 -1.690247
-0.472922 -0.081195 -1.690348
-0.472890 -0.079461 -1.690225
-0.472889 -0.079563 -1.690405
-0.472838 -0.081764 -1.690409
-0.472804 -0.079427 -1.690232
-0.472716 -0.081639 -1.690547
-0.472690 -0.082056 -1.690345
-0.472601 -0.079153 -1.690332
-0.472597 -0.079729 -1.690244
-0.472597 -0.080970 -1.690467
-0.472562 -0.080087 -1.690252
-0.472515 -0.080598 -1.690382
-0.472424 -0.080968 -1.690367
-0.472382 -0.079780 -1.690233
-0.472347 -0.079419 -1.690197
-0.472340 -0.082226 -1.690543
-0.472340 -0.079028 -1.690649
-0.472324 -0.081520 -1.690394
-0.472311 -0.081836 -1.690271
-0.472298 -0.082341 -1.690692
-0.472260 -0.082237 -1.690534
-0.472256 -0.080817 -1.690318
-0.472254 -0.081311 -1.690385
-0.472221 -0.081906 -1.690358
-0.472159 -0.080674 -1.690529
-0.472147 -0.082427 -1.690577
-0.472135 -0.080119 -1.690306
-0.472131 -0.080116 -1.690321
-0.472114 -0.079488 -1.690484
-0.472050 -0.081673 -1.690490
-0.472036 -0.080032 -1.690521
-0.472031 -0.079415 -1.690291
-0.472011 -0.079527 -1.690330
-0.471992 -0.079116 -1.690254
-0.471939 -0.080202 -1.690292
-0.471925 -0.080815 -1.690422
-0.471836 -0.080602 -1.690364
-0.471809 -0.081286 -1.690719
-0.471808 -0.081716 -1.690355
-0.471800 -0.081214 -1.690316
-0.471794 -0.081281 -1.690257
-0.471735 -0.079387 -1.690398
-0.471698 -0.081074 -1.690342
-0.471677 -0.081708 -1.690344
-0.471673 -0.079741 -1.690396
-0.471673 -0.079612 -1.690631
-0.471635 -0.081079 -1.690535
-0.471628 -0.081974 -1.690641
-0.471626 -0.078885 -1.690196
-0.471617 -0.082512 -1.690368
-0.471575 -0.081628 -1.690235
-0.471548 -0.079463 -1.690223
-0.471479 -0.080927 -1.690199
-0.471466 -0.079956 -1.690276
-0.471456 -0.081126 -1.690400
-0.471450 -0.081962 -1.690416
-0.471425 -0.082386 -1.690323
-0.471408 -0.080571 -1.690342
-0.471408 -0.079873 -1.690375
-0.471406 -0.079353 -1.690494
-0.471398 -0.080387 -1.690468
-0.471351 -0.080472 -1.690361
-0.471335 -0.081130 -1.690201
-0.471323 -0.080439 -1.690429
-0.471285 -0.082104 -1.690474
-0.471279 -0.080230 -1.690309
-0.471249 -0.080667 -1.690362
-0.471243 -0.081641 -1.690225
-0.471232 -0.081803 -1.690456
-0.471166 -0.078799 -1.690297
-0.471149 -0.078868 -1.690694
-0.471123 -0.079531 -1.690356
-0.471102 -0.080537 -1.690440
-0.471043 -0.081767 -1.690301
-0.471037 -0.081368 -1.690469
-0.471030 -0.078828 -1.690315
-0.471017 -0.079797 -1.690312
-0.471015 -0.080880 -1.690261
-0.470940 -0.079798 -1.690288
-0.470857 -0.081515 -1.690538
-0.470855 -0.079428 -1.690426
-0.470844 -0.079687 -1.690436
-0.470813 -0.080933 -1.690210
-0.470805 -0.082429 -1.690314
-0.470788 -0.081718 -1.690258
-0.470784 -0.080898 -1.690253
-0.470761 -0.082215 -1.690307
-0.470746 -0.079109 -1.690333
-0.470738 -0.079952 -1.690464
-0.470675 -0.082453 -1.690462
-0.470623 -0.079107 -1.690444
-0.470597 -0.081749 -1.690399
-0.470597 -0.080468 -1.690398
-0.470537 -0.082527 -1.690433
-0.470523 -0.079935 -1.690315
-0.470522 -0.081046 -1.690334
-0.470520 -0.079107 -1.690242
-0.470508 -0.082472 -1.690314
-0.470489 -0.080804 -1.690275
-0.470466 -0.080910 -1.690548
-0.470449 -0.080346 -1.690570
-0.470412 -0.079561 -1.690313
-0.470379 -0.078844 -1.690262
-0.470327 -0.080969 -1.690311
-0.470301 -0.079642 -1.690300
-0.470239 -0.080353 -1.690560
-0.470205 -0.081267 -1.690276
-0.470200 -0.081898 -1.690363
-0.470133 -0.078944 -1.690364
-0.470126 -0.081977 -1.690414
-0.473803 -0.078454 -1.690253
-0.473770 -0.077436 -1.690257
-0.473767 -0.075060 -1.690236
-0.473649 -0.075954 -1.690722
-0.473632 -0.077124 -1.690374
-0.473614 -0.075860 -1.690495
-0.473562 -0.075563 -1.690286
-0.473536 -0.076675 -1.690534
-0.473509 -0.078493 -1.690461
-0.473475 -0.078367 -1.690351
-0.473390 -0.075125 -1.690227
-0.473385 -0.076830 -1.690258
-0.473359 -0.077794 -1.690502
-0.473331 -0.075209 -1.690347
-0.473321 -0.077090 -1.690383
-0.473321 -0.077611 -1.690452
-0.473309 -0.078508 -1.690361
-0.473302 -0.078328 -1.690249
-0.473296 -0.075193 -1.690313
-0.473269 -0.077325 -1.690592
-0.473215 -0.078072 -1.690311
-0.473184 -0.076390 -1.690404
-0.473086 -0.077083 -1.690293
-0.473075 -0.076016 -1.690292
-0.473052 -0.076218 -1.690370
-0.473037 -0.077542 -1.690419
-0.472995 -0.076469 -1.690332
-0.472984 -0.075711 -1.690506
-0.472913 -0.075352 -1.690341
-0.472903 -0.076265 -1.690403
-0.472819 -0.075582 -1.690354
-0.472813 -0.077509 -1.690421
-0.472804 -0.077954 -1.690541
-0.472795 -0.078566 -1.690229
-0.472794 -0.076396 -1.690443
-0.472775 -0.077023 -1.690558
-0.472748 -0.078020 -1.690394
-0.472696 -0.076065 -1.690431
-0.472692 -0.075177 -1.690266
-0.472666 -0.077227 -1.690261
-0.472618 -0.078583 -1.690333
-0.472618 -0.077697 -1.690304
-0.472605 -0.077266 -1.690267
-0.472527 -0.075205 -1.690550
-0.472476 -0.075677 -1.690466
-0.472402 -0.078187 -1.690363
-0.472361 -0.077373 -1.690266
-0.472340 -0.075947 -1.690404
-0.472336 -0.076502 -1.690386
-0.472302 -0.075797 -1.690262
-0.472249 -0.078462 -1.690212
-0.472235 -0.075427 -1.690428
-0.472195 -0.077642 -1.690334
-0.472184 -0.078447 -1.690305
-0.472148 -0.075045 -1.690383
-0.472124 -0.075099 -1.690342
-0.472115 -0.078350 -1.690414
-0.472083 -0.076718 -1.690470
-0.472039 -0.075423 -1.690478
-0.472010 -0.075940 -1.690333
-0.472006 -0.076095 -1.690425
-0.471948 -0.077637 -1.690232
-0.471941 -0.078438 -1.690270
-0.471922 -0.076620 -1.690315
-0.471849 -0.076045 -1.690248
-0.471849 -0.077691 -1.690239
-0.471810 -0.075201 -1.690350
-0.471799 -0.078227 -1.690288
-0.471782 -0.078013 -1.690298
-0.471763 -0.076756 -1.690445
-0.471756 -0.077717 -1.690315
-0.471753 -0.078722 -1.690511
-0.471711 -0.077310 -1.690225
-0.471657 -0.078460 -1.690408
-0.471640 -0.078615 -1.690257
-0.471628 -0.077466 -1.690294
-0.471618 -0.076379 -1.690390
-0.471563 -0.075051 -1.690236
-0.471519 -0.075941 -1.690240
-0.471470 -0.075436 -1.690240
-0.471465 -0.076615 -1.690401
-0.471407 -0.076647 -1.690412
-0.471397 -0.077113 -1.690339
-0.471394 -0.077461 -1.690286
-0.471376 -0.076483 -1.690357
-0.471319 -0.075826 -1.690213
-0.471312 -0.075916 -1.690444
-0.471270 -0.078282 -1.690227
-0.471259 -0.076847 -1.690558
-0.471223 -0.075213 -1.690398
-0.471197 -0.077442 -1.690347
-0.471192 -0.078608 -1.690278
-0.471180 -0.075510 -1.690235
-0.471080 -0.075188 -1.690285
-0.471054 -0.076487 -1.690278
-0.471043 -0.076859 -1.690528
-0.470972 -0.076454 -1.690431
-0.470925 -0.078383 -1.690507
-0.470923 -0.076303 -1.690258
-0.470919 -0.078193 -1.690467
-0.470817 -0.075897 -1.690236
-0.470797 -0.076873 -1.690328
-0.470773 -0.077797 -1.690212
-0.470718 -0.077319 -1.690394
-0.470683 -0.075586 -1.690321
-0.470615 -0.076019 -1.690416
-0.470574 -0.076849 -1.690372
-0.470549 -0.075274 -1.690426
-0.470548 -0.078443 -1.690233
-0.470509 -0.075602 -1.690219
-0.470494 -0.075523 -1.690285
-0.470422 -0.077634 -1.690633
-0.470392 -0.077102 -1.690315
-0.470350 -0.078486 -1.690323
-0.470334 -0.076680 -1.690254
-0.470243 -0.078190 -1.690426
-0.470206 -0.076266 -1.690389
-0.470203 -0.077119 -1.690304
-0.470202 -0.075223 -1.690369
-0.470189 -0.078607 -1.690399
-0.470181 -0.078221 -1.690267
-0.470167 -0.077865 -1.690226
-0.470161 -0.076972 -1.690450
-0.470150 -0.077738 -1.690320
-0.470139 -0.076133 -1.690483
-0.473851 -0.071744 -1.690169
-0.473838 -0.072943 -1.690423
-0.473833 -0.074875 -1.690358
-0.473796 -0.071532 -1.690217
-0.473716 -0.072529 -1.690363
-0.473682 -0.071455 -1.690323
-0.473643 -0.072156 -1.690226
-0.473624 -0.073077 -1.690315
-0.473605 -0.073992 -1.690274
-0.473579 -0.072709 -1.690258
-0.473569 -0.073475 -1.690387
-0.473513 -0.074409 -1.690397
-0.473415 -0.071424 -1.690214
-0.473405 -0.071890 -1.690255
-0.473341 -0.073561 -1.690341
-0.473315 -0.072074 -1.690402
-0.473301 -0.072482 -1.690208
-0.473267 -0.072811 -1.690250
-0.473245 -0.071371 -1.690328
-0.473230 -0.072117 -1.690309
-0.473229 -0.071473 -1.690161
-0.473211 -0.071920 -1.690195
-0.473181 -0.072177 -1.690235
-0.473075 -0.074603 -1.690609
-0.472987 -0.071289 -1.690230
-0.472970 -0.071189 -1.690183
-0.472936 -0.073431 -1.690411
-0.472884 -0.071343 -1.690459
-0.472847 -0.073525 -1.690394
-0.472828 -0.071546 -1.690269
-0.472822 -0.071514 -1.690218
-0.472815 -0.073990 -1.690411
-0.472782 -0.074134 -1.690289
-0.472758 -0.074359 -1.690533
-0.472747 -0.071859 -1.690171
-0.472742 -0.073585 -1.690340
-0.472739 -0.074704 -1.690251
-0.472683 -0.072300 -1.690179
-0.472634 -0.072178 -1.690147
-0.472621 -0.072885 -1.690338
-0.472616 -0.072288 -1.690206
-0.472595 -0.073981 -1.690300
-0.472593 -0.073602 -1.690256
-0.472553 -0.072445 -1.690371
-0.472550 -0.074800 -1.690291
-0.472464 -0.072548 -1.690199
-0.472459 -0.072500 -1.690264
-0.472457 -0.072888 -1.690252
-0.472386 -0.074729 -1.690223
-0.472371 -0.071635 -1.690171
-0.472347 -0.071484 -1.690381
-0.472312 -0.073314 -1.690425
-0.472263 -0.074443 -1.690281
-0.472251 -0.073357 -1.690241
-0.472215 -0.071916 -1.690422
-0.472139 -0.071328 -1.690148
-0.472118 -0.074072 -1.690305
-0.472029 -0.074111 -1.690438
-0.472015 -0.074397 -1.690323
-0.471911 -0.073794 -1.690402
-0.471875 -0.072746 -1.690229
-0.471846 -0.074184 -1.690423
-0.471831 -0.071872 -1.690138
-0.471825 -0.072928 -1.690306
-0.471816 -0.073674 -1.690353
-0.471805 -0.073700 -1.690447
-0.471802 -0.072416 -1.690545
-0.471801 -0.072123 -1.690323
-0.471752 -0.072290 -1.690177
-0.471745 -0.071373 -1.690264
-0.471676 -0.074286 -1.690373
-0.471649 -0.073079 -1.690278
-0.471589 -0.071913 -1.690242
-0.471579 -0.072155 -1.690391
-0.471372 -0.074333 -1.690194
-0.471368 -0.074039 -1.690473
-0.471353 -0.071223 -1.690117
-0.471332 -0.072207 -1.690464
-0.471313 -0.072806 -1.690447
-0.471239 -0.074076 -1.690306
-0.471215 -0.074701 -1.690205
-0.471201 -0.074507 -1.690257
-0.471188 -0.071238 -1.690157
-0.471178 -0.071669 -1.690180
-0.471128 -0.074135 -1.690188
-0.471122 -0.073492 -1.690384
-0.471104 -0.073341 -1.690272
-0.471094 -0.074670 -1.690356
-0.471035 -0.073808 -1.690319
-0.470925 -0.074814 -1.690338
-0.470838 -0.074135 -1.690471
-0.470791 -0.074789 -1.690298
-0.470768 -0.071665 -1.690200
-0.470754 -0.074336 -1.690224
-0.470680 -0.072586 -1.690282
-0.470659 -0.073910 -1.690492
-0.470643 -0.072559 -1.690239
-0.470643 -0.074246 -1.690327
-0.470593 -0.071606 -1.690168
-0.470591 -0.072886 -1.690311
-0.470561 -0.071708 -1.690469
-0.470542 -0.071426 -1.690292
-0.470523 -0.073822 -1.690428
-0.470513 -0.074556 -1.690199
-0.470476 -0.074741 -1.690680
-0.470399 -0.072647 -1.690267
-0.470375 -0.073210 -1.690299
-0.470335 -0.072118 -1.690422
-0.470317 -0.073613 -1.690241
-0.470307 -0.071973 -1.690266
-0.470285 -0.074622 -1.690333
-0.470256 -0.073793 -1.690193
-0.470244 -0.073269 -1.690287
-0.470237 -0.074695 -1.690230
-0.470202 -0.072165 -1.690372
-0.470151 -0.073880 -1.690289
-0.473864 -0.067541 -1.690171
-0.473855 -0.070761 -1.690414
-0.473854 -0.069860 -1.690338
-0.473821 -0.069156 -1.690212
-0.473791 -0.071048 -1.690245
-0.473772 -0.069221 -1.690298
-0.473751 -0.070822 -1.690218
-0.473740 -0.068453 -1.690155
-0.473730 -0.068178 -1.690206
-0.473679 -0.068158 -1.690197
-0.473668 -0.068526 -1.690337
-0.473638 -0.071049 -1.690447
-0.473526 -0.069122 -1.690398
-0.473523 -0.067756 -1.690289
-0.473517 -0.069660 -1.690286
-0.473504 -0.069219 -1.690260
-0.473503 -0.067971 -1.690412
-0.473365 -0.070793 -1.690237
-0.473265 -0.067475 -1.690129
-0.473260 -0.069645 -1.690336
-0.473227 -0.069757 -1.690508
-0.473107 -0.070578 -1.690192
-0.473064 -0.069006 -1.690213
-0.473056 -0.070673 -1.690423
-0.473043 -0.067991 -1.690242
-0.473020 -0.068059 -1.690110
-0.473011 -0.070432 -1.690486
-0.473010 -0.070771 -1.690358
-0.472995 -0.068114 -1.690326
-0.472990 -0.068161 -1.690345
-0.472967 -0.067455 -1.690142
-0.472928 -0.069682 -1.690402
-0.472843 -0.069564 -1.690501
-0.472746 -0.068822 -1.690368
-0.472724 -0.068569 -1.690375
-0.472704 -0.067864 -1.690231
-0.472700 -0.068274 -1.690168
-0.472693 -0.067884 -1.690071
-0.472634 -0.069379 -1.690490
-0.472558 -0.067409 -1.690126
-0.472481 -0.070953 -1.690322
-0.472396 -0.068668 -1.690298
-0.472387 -0.067808 -1.690236
-0.472362 -0.070777 -1.690187
-0.472334 -0.070568 -1.690261
-0.472311 -0.067843 -1.690221
-0.472304 -0.070168 -1.690336
-0.472290 -0.067578 -1.690114
-0.472251 -0.067881 -1.690248
-0.472191 -0.071101 -1.690201
-0.472044 -0.068064 -1.690531
-0.472039 -0.068558 -1.690218
-0.471985 -0.070926 -1.690248
-0.471897 -0.069368 -1.690188
-0.471895 -0.067810 -1.690228
-0.471820 -0.067975 -1.690264
-0.471774 -0.070851 -1.690176
-0.471709 -0.067660 -1.690179
-0.471700 -0.070036 -1.690363
-0.471696 -0.070268 -1.690385
-0.471669 -0.069815 -1.690229
-0.471633 -0.067821 -1.690330
-0.471555 -0.069883 -1.690255
-0.471523 -0.070482 -1.690192
-0.471491 -0.068377 -1.690269
-0.471482 -0.068957 -1.690280
-0.471471 -0.067582 -1.690213
-0.471465 -0.068543 -1.690225
-0.471427 -0.070891 -1.690292
-0.471295 -0.069611 -1.690275
-0.471277 -0.070529 -1.690331
-0.471232 -0.069191 -1.690183
-0.471171 -0.069379 -1.690209
-0.471114 -0.068190 -1.690416
-0.471076 -0.067408 -1.690307
-0.471018 -0.068788 -1.690351
-0.471011 -0.067786 -1.690279
-0.471008 -0.070641 -1.690382
-0.470979 -0.067378 -1.690061
-0.470968 -0.067472 -1.690204
-0.470942 -0.067572 -1.690139
-0.470942 -0.068886 -1.690323
-0.470928 -0.070237 -1.690159
-0.470897 -0.068958 -1.690158
-0.470811 -0.068236 -1.690198
-0.470765 -0.068609 -1.690194
-0.470755 -0.070720 -1.690187
-0.470724 -0.071070 -1.690184
-0.470667 -0.067575 -1.690153
-0.470585 -0.069495 -1.690524
-0.470583 -0.069810 -1.690277
-0.470561 -0.071097 -1.690252
-0.470561 -0.068064 -1.690274
-0.470494 -0.068665 -1.690178
-0.470481 -0.070223 -1.690322
-0.470456 -0.071006 -1.690446
-0.470364 -0.070899 -1.690193
-0.470363 -0.067905 -1.690334
-0.470351 -0.069597 -1.690250
-0.470324 -0.069758 -1.690195
-0.470301 -0.069321 -1.690177
-0.470282 -0.070340 -1.690312
-0.470243 -0.070108 -1.690203
-0.470199 -0.068605 -1.690229
-0.470161 -0.068988 -1.690185
-0.470141 -0.070826 -1.690254
-0.470133 -0.070391 -1.690225
-0.470132 -0.068091 -1.690137
-0.473873 -0.064259 -1.690175
-0.473815 -0.067026 -1.690252
-0.473779 -0.064847 -1.690454
-0.473768 -0.064532 -1.690249
-0.473758 -0.066626 -1.690106
-0.473729 -0.064176 -1.690123
-0.473611 -0.065480 -1.690136
-0.473566 -0.065260 -1.690152
-0.473565 -0.066879 -1.690163
-0.473558 -0.064031 -1.690123
-0.473556 -0.064734 -1.690117
-0.473534 -0.063919 -1.690098
-0.473504 -0.066322 -1.690119
-0.473500 -0.066523 -1.690113
-0.473492 -0.065290 -1.690163
-0.473486 -0.063681 -1.690097
-0.473452 -0.066781 -1.690191
-0.473443 -0.067054 -1.690229
-0.473423 -0.066384 -1.690114
-0.473372 -0.063866 -1.690143
-0.473369 -0.063703 -1.690354
-0.473359 -0.064703 -1.690294
-0.473308 -0.066353 -1.690249
-0.473294 -0.067115 -1.690061
-0.473275 -0.067257 -1.690171
-0.473264 -0.065650 -1.690138
-0.473232 -0.064574 -1.690200
-0.473226 -0.065232 -1.690163
-0.473176 -0.064911 -1.690244
-0.473175 -0.067072 -1.690197
-0.473142 -0.066309 -1.690104
-0.473125 -0.064526 -1.690166
-0.473125 -0.064949 -1.690163
-0.473107 -0.064684 -1.690166
-0.473092 -0.065536 -1.690182
-0.473044 -0.065924 -1.690086
-0.473043 -0.066086 -1.690132
-0.473001 -0.065415 -1.690219
-0.472996 -0.064248 -1.690172
-0.472940 -0.065569 -1.690263
-0.472891 -0.063854 -1.690117
-0.472857 -0.067151 -1.690199
-0.472834 -0.064327 -1.690103
-0.472833 -0.066349 -1.690101
-0.472784 -0.066666 -1.690269
-0.472778 -0.063559 -1.690128
-0.472761 -0.064202 -1.690208
-0.472757 -0.067343 -1.690097
-0.472704 -0.063829 -1.690116
-0.472668 -0.065740 -1.690238
-0.472653 -0.064252 -1.690168
-0.472607 -0.065336 -1.690164
-0.472597 -0.064496 -1.690319
-0.472582 -0.067143 -1.690054
-0.472567 -0.067033 -1.690154
-0.472522 -0.067165 -1.690316
-0.472521 -0.066460 -1.690145
-0.472505 -0.065318 -1.690094
-0.472449 -0.066458 -1.690138
-0.472439 -0.064647 -1.690537
-0.472433 -0.065343 -1.690204
-0.472424 -0.065717 -1.690439
-0.472403 -0.066044 -1.690097
-0.472388 -0.066730 -1.690077
-0.472374 -0.065096 -1.690106
-0.472359 -0.065760 -1.690201
-0.472287 -0.065305 -1.690267
-0.472284 -0.064855 -1.690389
-0.472213 -0.063705 -1.690063
-0.472193 -0.065060 -1.690264
-0.472186 -0.064355 -1.690100
-0.472170 -0.066166 -1.690106
-0.472162 -0.064566 -1.690227
-0.472147 -0.066628 -1.690091
-0.472146 -0.065567 -1.690241
-0.472129 -0.064736 -1.690099
-0.472086 -0.063653 -1.690069
-0.472077 -0.064137 -1.690229
-0.472056 -0.066144 -1.690283
-0.471990 -0.066272 -1.690121
-0.471983 -0.064842 -1.690263
-0.471980 -0.065641 -1.690280
-0.471877 -0.066177 -1.690264
-0.471866 -0.063948 -1.690145
-0.471848 -0.067268 -1.690052
-0.471844 -0.067299 -1.690068
-0.471840 -0.064272 -1.690168
-0.471756 -0.067145 -1.690551
-0.471669 -0.064633 -1.690091
-0.471630 -0.066570 -1.690187
-0.471622 -0.065052 -1.690048
-0.471611 -0.065105 -1.690176
-0.471610 -0.067161 -1.690082
-0.471609 -0.067205 -1.690380
-0.471558 -0.064016 -1.690159
-0.471553 -0.066683 -1.690220
-0.471530 -0.065928 -1.690209
-0.471496 -0.066816 -1.690541
-0.471489 -0.065869 -1.690213
-0.471457 -0.065585 -1.690318
-0.471442 -0.066130 -1.690094
-0.471437 -0.063549 -1.690211
-0.471412 -0.065872 -1.690077
-0.471368 -0.065168 -1.690212
-0.471306 -0.064464 -1.690128
-0.471295 -0.065234 -1.690320
-0.471278 -0.066725 -1.690157
-0.471261 -0.066539 -1.690032
-0.471229 -0.065981 -1.690058
-0.471197 -0.063762 -1.690108
-0.471188 -0.066390 -1.690295
-0.471157 -0.066768 -1.690181
-0.471144 -0.066649 -1.690341
-0.471098 -0.064544 -1.690183
-0.471057 -0.063800 -1.690207
-0.471053 -0.064327 -1.690477
-0.471014 -0.063613 -1.690226
-0.470917 -0.065195 -1.690427
-0.470908 -0.064911 -1.690193
-0.470900 -0.064987 -1.690211
-0.470869 -0.064295 -1.690054
-0.470865 -0.066538 -1.690042
-0.470864 -0.066586 -1.690272
-0.470753 -0.066010 -1.690197
-0.470735 -0.065975 -1.690062
-0.470723 -0.063962 -1.690190
-0.470697 -0.066008 -1.690297
-0.470683 -0.065796 -1.690179
-0.470674 -0.066683 -1.690321
-0.470665 -0.064064 -1.690151
-0.470625 -0.066522 -1.690200
-0.470620 -0.067248 -1.690293
-0.470620 -0.067147 -1.690137
-0.470586 -0.066777 -1.690299
-0.470586 -0.064664 -1.690100
-0.470579 -0.065274 -1.690109
-0.470526 -0.064939 -1.690267
-0.470414 -0.063717 -1.690157
-0.470413 -0.065756 -1.690125
-0.470413 -0.064077 -1.690371
-0.470408 -0.064574 -1.690179
-0.470404 -0.064949 -1.690195
-0.470383 -0.064872 -1.690290
-0.470382 -0.066548 -1.690061
-0.470378 -0.067306 -1.690168
-0.470373 -0.065645 -1.690144
-0.470354 -0.063870 -1.690082
-0.470315 -0.065281 -1.690202
-0.470272 -0.066912 -1.690044
-0.470209 -0.066346 -1.690037
-0.470174 -0.065987 -1.690251
-0.470164 -0.065656 -1.690053
-0.470149 -0.064961 -1.690392
-0.473840 -0.060800 -1.690070
-0.473834 -0.063186 -1.690298
-0.473809 -0.063235 -1.690168
-0.473753 -0.060131 -1.690132
-0.473740 -0.059790 -1.690085
-0.473730 -0.060497 -1.690024
-0.473728 -0.061390 -1.689970
-0.473706 -0.062735 -1.690040
-0.473705 -0.060194 -1.690037
-0.473691 -0.062901 -1.690172
-0.473690 -0.061361 -1.690438
-0.473653 -0.061537 -1.690325
-0.473617 -0.061271 -1.690075
-0.473564 -0.062809 -1.690059
-0.473562 -0.061729 -1.690164
-0.473551 -0.061989 -1.690094
-0.473540 -0.061331 -1.689929
-0.473503 -0.060967 -1.689952
-0.473468 -0.059851 -1.690068
-0.473426 -0.062307 -1.690187
-0.473426 -0.059822 -1.690115
-0.473389 -0.062274 -1.690189
-0.473365 -0.060631 -1.690005
-0.473364 -0.059852 -1.690188
-0.473362 -0.059986 -1.689967
-0.473354 -0.062841 -1.690123
-0.473305 -0.063472 -1.690085
-0.473268 -0.061340 -1.689945
-0.473266 -0.062207 -1.690294
-0.473214 -0.059931 -1.690045
-0.473199 -0.061092 -1.690343
-0.473199 -0.061972 -1.690235
-0.473199 -0.060580 -1.690014
-0.473195 -0.062935 -1.690382
-0.473105 -0.062909 -1.690183
-0.473099 -0.060640 -1.690018
-0.473098 -0.060175 -1.690191
-0.473059 -0.061711 -1.689970
-0.473054 -0.061788 -1.690019
-0.473038 -0.063074 -1.690276
-0.473019 -0.061193 -1.690419
-0.473014 -0.062707 -1.690089
-0.473004 -0.060056 -1.690042
-0.472940 -0.063121 -1.690164
-0.472877 -0.060233 -1.690058
-0.472860 -0.060744 -1.689983
-0.472831 -0.062676 -1.690200
-0.472824 -0.061288 -1.690089
-0.472767 -0.063527 -1.690353
-0.472767 -0.062421 -1.690111
-0.472764 -0.060914 -1.690092
-0.472749 -0.059827 -1.690054
-0.472739 -0.063184 -1.690062
-0.472722 -0.061367 -1.690020
-0.472713 -0.062847 -1.690228
-0.472693 -0.062163 -1.690066
-0.472612 -0.060963 -1.690003
-0.472573 -0.062146 -1.690254
-0.472565 -0.061441 -1.690092
-0.472530 -0.061271 -1.690034
-0.472528 -0.062420 -1.690112
-0.472528 -0.060394 -1.690149
-0.472404 -0.060741 -1.690148
-0.472398 -0.062063 -1.690602
-0.472374 -0.062188 -1.690058
-0.472327 -0.060614 -1.690072
-0.472305 -0.061124 -1.690222
-0.472299 -0.062599 -1.690142
-0.472290 -0.063492 -1.690239
-0.472286 -0.059958 -1.690109
-0.472270 -0.063107 -1.690109
-0.472232 -0.060503 -1.690232
-0.472188 -0.060275 -1.690193
-0.472158 -0.060604 -1.690167
-0.472149 -0.060186 -1.690083
-0.472144 -0.063301 -1.690070
-0.472108 -0.063153 -1.690157
-0.472077 -0.061175 -1.689997
-0.472069 -0.061576 -1.690186
-0.472052 -0.063475 -1.690218
-0.472008 -0.062030 -1.689984
-0.471996 -0.061856 -1.690338
-0.471988 -0.062851 -1.690119
-0.471978 -0.061259 -1.690135
-0.471972 -0.060984 -1.690427
-0.471933 -0.062792 -1.690118
-0.471921 -0.062953 -1.690131
-0.471899 -0.060916 -1.690286
-0.471868 -0.060199 -1.690176
-0.471853 -0.062417 -1.690046
-0.471849 -0.062250 -1.690060
-0.471824 -0.059809 -1.690167
-0.471796 -0.062735 -1.690099
-0.471759 -0.062882 -1.690167
-0.471758 -0.061783 -1.690383
-0.471742 -0.059806 -1.690100
-0.471730 -0.062572 -1.690159
-0.471698 -0.061004 -1.690029
-0.471683 -0.062211 -1.690004
-0.471654 -0.063435 -1.690188
-0.471603 -0.061031 -1.690070
-0.471596 -0.062465 -1.690152
-0.471565 -0.061537 -1.690450
-0.471561 -0.060999 -1.690183
-0.471554 -0.063512 -1.690085
-0.471496 -0.060447 -1.690273
-0.471435 -0.061633 -1.690367
-0.471365 -0.059953 -1.690226
-0.471359 -0.061989 -1.690173
-0.471356 -0.063324 -1.690201
-0.471351 -0.061568 -1.690247
-0.471340 -0.060688 -1.690180
-0.471306 -0.060705 -1.689952
-0.471249 -0.060225 -1.690103
-0.471229 -0.062731 -1.690149
-0.471217 -0.059986 -1.690235
-0.471200 -0.060463 -1.689994
-0.471200 -0.062922 -1.690296
-0.471151 -0.063243 -1.690133
-0.471128 -0.060147 -1.690036
-0.471120 -0.063059 -1.690044
-0.471120 -0.062581 -1.690054
-0.471110 -0.061393 -1.690010
-0.471104 -0.059805 -1.690129
-0.471083 -0.061379 -1.689940
-0.471080 -0.061591 -1.690302
-0.470989 -0.060982 -1.690011
-0.470971 -0.063005 -1.690060
-0.470957 -0.060804 -1.690153
-0.470933 -0.062478 -1.690050
-0.470921 -0.062266 -1.690061
-0.470913 -0.062637 -1.689998
-0.470878 -0.063356 -1.690043
-0.470874 -0.059860 -1.690085
-0.470868 -0.061456 -1.689979
-0.470831 -0.062362 -1.690280
-0.470777 -0.061658 -1.690184
-0.470766 -0.061059 -1.690225
-0.470748 -0.062485 -1.690129
-0.470748 -0.060954 -1.690053
-0.470702 -0.060699 -1.689945
-0.470701 -0.061976 -1.690181
-0.470682 -0.063122 -1.690106
-0.470671 -0.060250 -1.689989
-0.470656 -0.063142 -1.690092
-0.470588 -0.060367 -1.689922
-0.470538 -0.062026 -1.689985
-0.470534 -0.060551 -1.690068
-0.470525 -0.060206 -1.690090
-0.470522 -0.059874 -1.690115
-0.470501 -0.062660 -1.690132
-0.470435 -0.061325 -1.690104
-0.470326 -0.062828 -1.690093
-0.470284 -0.060287 -1.690301
-0.470251 -0.062475 -1.689991
-0.470242 -0.060742 -1.689945
-0.470209 -0.059831 -1.690162
-0.470191 -0.061403 -1.689931
-0.470159 -0.061009 -1.690132
-0.470125 -0.062800 -1.690027
-0.470107 -0.060298 -1.689971
-0.473882 -0.058420 -1.689973
-0.473845 -0.056087 -1.690260
-0.473802 -0.058169 -1.690285
-0.473738 -0.057509 -1.690082
-0.473722 -0.057720 -1.690026
-0.473669 -0.056302 -1.690040
-0.473656 -0.059075 -1.690071
-0.473634 -0.057018 -1.689979
-0.473632 -0.058681 -1.689991
-0.473602 -0.059321 -1.689952
-0.473567 -0.058597 -1.690298
-0.473556 -0.058695 -1.690158
-0.473518 -0.057012 -1.689912
-0.473516 -0.056316 -1.689973
-0.473498 -0.057101 -1.690199
-0.473489 -0.057305 -1.690149
-0.473475 -0.058306 -1.690116
-0.473440 -0.058439 -1.690094
-0.473355 -0.056813 -1.690166
-0.473354 -0.059213 -1.690073
-0.473345 -0.059458 -1.690041
-0.473335 -0.056808 -1.690203
-0.473294 -0.057971 -1.690336
-0.473262 -0.059155 -1.689921
-0.473248 -0.058089 -1.689931
-0.473226 -0.057651 -1.690010
-0.473205 -0.056458 -1.690066
-0.473139 -0.056768 -1.690283
-0.473126 -0.057857 -1.690029
-0.473079 -0.058362 -1.689876
-0.473003 -0.058527 -1.689999
-0.473003 -0.057509 -1.690225
-0.472981 -0.058915 -1.690036
-0.472953 -0.058931 -1.690367
-0.472951 -0.057509 -1.690150
-0.472945 -0.059045 -1.690108
-0.472941 -0.056142 -1.690089
-0.472925 -0.057058 -1.690082
-0.472922 -0.058654 -1.689983
-0.472917 -0.058747 -1.690011
-0.472906 -0.057452 -1.689933
-0.472896 -0.059092 -1.689938
-0.472801 -0.057174 -1.690062
-0.472791 -0.059004 -1.689969
-0.472736 -0.059697 -1.690018
-0.472730 -0.058322 -1.690132
-0.472730 -0.057119 -1.690051
-0.472717 -0.057135 -1.690283
-0.472716 -0.056698 -1.689913
-0.472660 -0.056958 -1.689930
-0.472659 -0.059620 -1.690086
-0.472612 -0.058377 -1.690075
-0.472609 -0.057834 -1.690260
-0.472553 -0.059036 -1.689957
-0.472544 -0.056391 -1.689907
-0.472521 -0.058482 -1.689927
-0.472508 -0.056493 -1.690017
-0.472494 -0.058095 -1.689899
-0.472485 -0.059572 -1.689941
-0.472473 -0.059631 -1.690107
-0.472467 -0.057992 -1.690051
-0.472387 -0.056604 -1.689953
-0.472345 -0.056292 -1.689937
-0.472340 -0.056403 -1.690105
-0.472327 -0.059375 -1.690027
-0.472305 -0.059084 -1.690076
-0.472300 -0.058769 -1.689976
-0.472235 -0.057749 -1.689902
-0.472232 -0.057464 -1.690100
-0.472221 -0.056225 -1.689933
-0.472212 -0.057457 -1.690292
-0.472204 -0.059072 -1.689956
-0.472178 -0.059337 -1.690122
-0.472171 -0.057625 -1.690238
-0.472161 -0.056230 -1.689901
-0.472130 -0.058634 -1.690017
-0.472115 -0.059412 -1.690202
-0.472104 -0.057066 -1.689937
-0.472048 -0.058143 -1.690072
-0.472027 -0.058774 -1.690043
-0.472025 -0.059559 -1.690083
-0.472013 -0.057231 -1.690101
-0.471997 -0.057932 -1.690033
-0.471976 -0.058685 -1.689988
-0.471922 -0.058612 -1.690012
-0.471858 -0.057853 -1.689912
-0.471852 -0.058326 -1.690122
-0.471833 -0.058488 -1.689970
-0.471809 -0.056334 -1.690041
-0.471807 -0.056527 -1.689955
-0.471802 -0.057003 -1.689918
-0.471787 -0.059047 -1.690199
-0.471777 -0.056916 -1.689970
-0.471775 -0.058897 -1.689886
-0.471752 -0.056818 -1.690155
-0.471713 -0.059460 -1.690078
-0.471687 -0.056090 -1.689976
-0.471649 -0.057038 -1.689967
-0.471642 -0.059690 -1.689909
-0.471609 -0.058647 -1.689875
-0.471605 -0.058051 -1.690023
-0.471586 -0.059278 -1.690241
-0.471571 -0.058010 -1.690241
-0.471531 -0.056417 -1.690237
-0.471444 -0.059173 -1.690006
-0.471426 -0.056913 -1.689890
-0.471419 -0.057922 -1.689911
-0.471415 -0.057597 -1.690120
-0.471414 -0.056329 -1.689998
-0.471372 -0.059413 -1.689886
-0.471358 -0.057981 -1.690039
-0.471344 -0.056046 -1.690124
-0.471312 -0.056138 -1.690125
-0.471300 -0.058928 -1.689912
-0.471271 -0.057637 -1.690201
-0.471265 -0.058712 -1.690107
-0.471252 -0.058348 -1.690093
-0.471248 -0.057541 -1.690143
-0.471200 -0.058037 -1.689941
-0.471148 -0.058768 -1.689979
-0.471136 -0.057154 -1.690085
-0.471092 -0.058332 -1.690118
-0.471087 -0.057335 -1.689928
-0.471064 -0.057081 -1.690401
-0.471001 -0.059324 -1.689888
-0.470989 -0.056889 -1.690082
-0.470982 -0.058369 -1.690118
-0.470980 -0.058379 -1.690029
-0.470957 -0.056633 -1.689940
-0.470949 -0.059045 -1.689978
-0.470946 -0.058317 -1.690127
-0.470915 -0.059609 -1.690004
-0.470890 -0.057003 -1.690019
-0.470868 -0.058059 -1.689980
-0.470849 -0.059550 -1.690006
-0.470817 -0.056695 -1.690179
-0.470731 -0.058327 -1.689934
-0.470713 -0.056505 -1.690143
-0.470709 -0.059157 -1.689995
-0.470708 -0.056318 -1.689957
-0.470699 -0.059309 -1.689908
-0.470696 -0.059705 -1.690013
-0.470637 -0.057406 -1.689931
-0.470606 -0.057959 -1.690228
-0.470600 -0.057729 -1.689963
-0.470595 -0.056244 -1.689941
-0.470571 -0.057386 -1.690100
-0.470545 -0.058746 -1.689995
-0.470489 -0.057394 -1.689869
-0.470422 -0.057160 -1.690187
-0.470420 -0.058692 -1.690082
-0.470410 -0.058793 -1.690043
-0.470407 -0.056129 -1.690126
-0.470394 -0.057261 -1.690090
-0.470359 -0.056168 -1.690227
-0.470350 -0.058713 -1.690146
-0.470293 -0.058021 -1.690111
-0.470283 -0.058273 -1.689900
-0.470230 -0.058350 -1.690122
-0.470222 -0.059454 -1.689982
-0.470215 -0.057441 -1.689942
-0.470208 -0.058120 -1.689927
-0.470160 -0.056931 -1.690129
-0.470150 -0.058148 -1.690207
-0.470136 -0.058727 -1.689993
-0.470110 -0.056514 -1.689957
-0.473851 -0.054214 -1.690146
-0.473832 -0.055599 -1.690149
-0.473801 -0.054121 -1.689917
-0.473703 -0.053227 -1.689970
-0.473647 -0.055405 -1.689987
-0.473637 -0.055013 -1.690109
-0.473624 -0.052147 -1.690039
-0.473616 -0.053784 -1.690042
-0.473569 -0.052367 -1.690023
-0.473562 -0.054760 -1.690223
-0.473527 -0.055601 -1.690048
-0.473521 -0.055095 -1.689993
-0.473519 -0.055729 -1.690147
-0.473503 -0.052526 -1.689958
-0.473490 -0.053511 -1.690034
-0.473450 -0.052812 -1.690063
-0.473441 -0.055770 -1.690004
-0.473397 -0.053210 -1.690080
-0.473325 -0.053151 -1.690011
-0.473291 -0.052356 -1.689927
-0.473277 -0.054913 -1.689966
-0.473271 -0.052506 -1.689951
-0.473231 -0.054812 -1.690036
-0.473170 -0.054502 -1.690041
-0.473155 -0.055127 -1.689929
-0.473111 -0.053606 -1.689969
-0.473095 -0.053901 -1.690055
-0.473086 -0.052940 -1.689993
-0.473070 -0.052175 -1.689900
-0.473044 -0.053019 -1.689953
-0.472906 -0.052915 -1.689969
-0.472902 -0.052550 -1.689966
-0.472893 -0.055822 -1.689960
-0.472887 -0.052105 -1.689829
-0.472857 -0.053196 -1.690053
-0.472845 -0.052320 -1.689793
-0.472833 -0.054727 -1.689967
-0.472803 -0.055829 -1.689964
-0.472788 -0.053922 -1.690038
-0.472737 -0.054251 -1.690200
-0.472728 -0.052350 -1.690029
-0.472718 -0.054371 -1.689959
-0.472708 -0.052942 -1.689857
-0.472704 -0.053057 -1.690062
-0.472635 -0.053024 -1.689919
-0.472632 -0.053601 -1.690241
-0.472606 -0.054372 -1.689914
-0.472522 -0.052213 -1.690041
-0.472508 -0.053582 -1.689973
-0.472496 -0.053943 -1.690037
-0.472485 -0.055226 -1.689998
-0.472470 -0.053620 -1.690230
-0.472451 -0.053942 -1.690163
-0.472434 -0.052468 -1.690037
-0.472401 -0.054943 -1.689928
-0.472383 -0.055132 -1.689907
-0.472353 -0.053366 -1.689942
-0.472316 -0.053323 -1.690009
-0.472294 -0.054609 -1.689915
-0.472294 -0.054317 -1.689967
-0.472293 -0.052254 -1.689783
-0.472197 -0.053437 -1.690274
-0.472175 -0.055893 -1.690098
-0.472150 -0.054584 -1.689901
-0.472129 -0.054761 -1.689940
-0.472127 -0.052974 -1.689970
-0.472114 -0.052641 -1.690156
-0.472076 -0.053245 -1.689979
-0.472040 -0.052670 -1.690220
-0.472040 -0.054354 -1.689960
-0.472027 -0.055526 -1.690066
-0.472007 -0.052915 -1.690060
-0.471955 -0.052689 -1.690185
-0.471952 -0.052795 -1.689904
-0.471951 -0.055259 -1.690075
-0.471951 -0.055684 -1.690155
-0.471950 -0.054409 -1.689892
-0.471930 -0.052211 -1.689964
-0.471900 -0.053320 -1.690129
-0.471871 -0.052915 -1.689926
-0.471816 -0.053659 -1.689935
-0.471786 -0.054049 -1.689942
-0.471768 -0.055466 -1.689978
-0.471754 -0.052364 -1.689956
-0.471732 -0.052145 -1.690179
-0.471703 -0.053663 -1.689945
-0.471698 -0.054021 -1.690029
-0.471694 -0.055825 -1.689943
-0.471628 -0.052493 -1.690009
-0.471551 -0.054570 -1.690078
-0.471545 -0.054715 -1.689958
-0.471533 -0.054285 -1.690109
-0.471501 -0.053656 -1.689924
-0.471418 -0.052379 -1.689984
-0.471361 -0.054756 -1.690002
-0.471355 -0.052669 -1.689892
-0.471332 -0.052586 -1.690053
-0.471314 -0.055419 -1.690120
-0.471309 -0.054695 -1.690042
-0.471288 -0.052869 -1.689878
-0.471265 -0.053016 -1.689860
-0.471252 -0.053244 -1.690006
-0.471230 -0.053071 -1.689916
-0.471187 -0.055324 -1.690159
-0.471146 -0.055787 -1.690071
-0.471146 -0.054170 -1.690136
-0.471142 -0.052314 -1.689860
-0.471096 -0.055731 -1.690288
-0.471068 -0.052936 -1.689904
-0.471037 -0.053700 -1.690226
-0.471020 -0.054406 -1.689889
-0.471016 -0.052773 -1.689905
-0.471002 -0.054167 -1.690037
-0.470977 -0.055774 -1.689897
-0.470940 -0.053713 -1.690009
-0.470902 -0.052160 -1.689939
-0.470899 -0.052615 -1.689954
-0.470874 -0.055379 -1.690160
-0.470846 -0.054151 -1.690029
-0.470773 -0.054607 -1.690363
-0.470741 -0.055119 -1.689966
-0.470723 -0.053352 -1.690032
-0.470690 -0.054375 -1.690040
-0.470629 -0.055245 -1.690068
-0.470622 -0.053549 -1.690122
-0.470619 -0.055442 -1.689905
-0.470610 -0.052537 -1.689825
-0.470605 -0.052646 -1.690081
-0.470574 -0.055003 -1.689894
-0.470535 -0.054517 -1.690083
-0.470533 -0.053626 -1.689880
-0.470448 -0.053263 -1.689988
-0.470381 -0.054509 -1.690373
-0.470333 -0.055768 -1.689872
-0.470325 -0.053589 -1.690275
-0.470317 -0.054572 -1.690066
-0.470311 -0.052566 -1.689976
-0.470246 -0.054831 -1.689891
-0.470237 -0.054264 -1.690167
-0.470220 -0.055634 -1.690358
-0.470163 -0.054010 -1.689961
-0.470153 -0.053233 -1.690037
-0.470149 -0.053048 -1.689873
-0.473871 -0.049292 -1.690321
-0.473851 -0.048904 -1.689976
-0.473841 -0.050696 -1.689872
-0.473836 -0.051590 -1.690114
-0.473817 -0.051574 -1.690052
-0.473800 -0.048392 -1.690109
-0.473782 -0.049256 -1.689807
-0.473743 -0.049595 -1.690446
-0.473725 -0.051469 -1.690069
-0.473719 -0.049632 -1.690411
-0.473700 -0.048403 -1.689977
-0.473654 -0.052002 -1.689960
-0.473640 -0.051743 -1.689986
-0.473607 -0.048665 -1.689987
-0.473606 -0.050941 -1.690162
-0.473601 -0.049779 -1.690066
-0.473533 -0.048737 -1.690032
-0.473520 -0.048699 -1.690370
-0.473473 -0.051919 -1.690100
-0.473448 -0.051438 -1.689880
-0.473439 -0.050501 -1.690253
-0.473435 -0.048958 -1.690336
-0.473427 -0.050594 -1.690339
-0.473418 -0.049968 -1.689854
-0.473343 -0.050600 -1.690055
-0.473332 -0.048500 -1.689841
-0.473329 -0.051589 -1.690235
-0.473283 -0.048693 -1.690377
-0.473223 -0.049898 -1.690052
-0.473211 -0.051287 -1.690303
-0.473201 -0.050982 -1.690020
-0.473197 -0.049926 -1.690113
-0.473197 -0.050034 -1.689904
-0.473185 -0.051346 -1.689950
-0.473165 -0.051572 -1.690151
-0.473157 -0.049196 -1.689973
-0.473146 -0.048780 -1.690003
-0.473131 -0.051864 -1.690091
-0.473118 -0.051469 -1.689923
-0.473096 -0.048335 -1.690272
-0.473081 -0.048721 -1.689880
-0.473057 -0.049433 -1.690443
-0.472968 -0.050707 -1.689900
-0.472933 -0.049108 -1.690044
-0.472922 -0.049813 -1.689901
-0.472904 -0.049284 -1.689981
-0.472891 -0.048495 -1.690178
-0.472843 -0.051793 -1.689918
-0.472823 -0.049821 -1.690360
-0.472801 -0.050958 -1.690125
-0.472750 -0.050370 -1.690169
-0.472736 -0.048315 -1.690096
-0.472718 -0.050371 -1.689928
-0.472683 -0.051351 -1.689986
-0.472682 -0.050969 -1.689867
-0.472649 -0.049059 -1.689865
-0.472624 -0.049197 -1.690041
-0.472614 -0.051379 -1.689991
-0.472587 -0.048544 -1.689762
-0.472549 -0.048666 -1.689940
-0.472528 -0.048718 -1.690023
-0.472507 -0.051949 -1.689984
-0.472489 -0.048550 -1.689860
-0.472473 -0.051233 -1.690019
-0.472472 -0.049070 -1.689832
-0.472468 -0.052031 -1.689960
-0.472448 -0.051294 -1.690093
-0.472446 -0.050340 -1.690083
-0.472432 -0.051733 -1.690173
-0.472416 -0.050001 -1.689977
-0.472359 -0.049533 -1.689970
-0.472338 -0.048595 -1.689742
-0.472321 -0.049414 -1.690164
-0.472284 -0.051975 -1.689869
-0.472248 -0.051972 -1.690085
-0.472227 -0.049300 -1.690072
-0.472205 -0.051310 -1.689865
-0.472203 -0.050410 -1.689839
-0.472184 -0.049550 -1.690151
-0.472160 -0.048653 -1.689897
-0.472122 -0.051465 -1.690042
-0.472118 -0.048460 -1.690041
-0.472118 -0.050496 -1.690219
-0.472109 -0.050123 -1.690284
-0.472008 -0.050260 -1.689975
-0.471997 -0.050384 -1.689820
-0.471987 -0.051691 -1.690096
-0.471973 -0.048886 -1.689821
-0.471947 -0.049780 -1.690255
-0.471936 -0.051507 -1.689784
-0.471934 -0.049629 -1.690104
-0.471909 -0.051050 -1.689939
-0.471873 -0.049632 -1.689960
-0.471846 -0.051504 -1.689809
-0.471838 -0.048588 -1.689936
-0.471834 -0.051248 -1.689797
-0.471825 -0.048336 -1.689743
-0.471811 -0.051039 -1.690043
-0.471790 -0.049971 -1.689876
-0.471782 -0.049086 -1.689933
-0.471781 -0.048709 -1.689968
-0.471761 -0.051128 -1.690053
-0.471725 -0.050742 -1.690009
-0.471672 -0.050569 -1.689816
-0.471652 -0.051708 -1.689981
-0.471619 -0.051079 -1.689892
-0.471568 -0.049390 -1.689939
-0.471563 -0.051888 -1.689955
-0.471546 -0.049276 -1.689937
-0.471514 -0.051949 -1.689811
-0.471514 -0.049043 -1.689995
-0.471500 -0.051778 -1.689937
-0.471479 -0.050657 -1.689839
-0.471406 -0.052101 -1.690047
-0.471372 -0.050123 -1.689965
-0.471365 -0.051559 -1.690200
-0.471356 -0.051763 -1.689978
-0.471350 -0.050160 -1.689907
-0.471332 -0.049170 -1.689972
-0.471330 -0.049992 -1.690078
-0.471257 -0.050240 -1.690170
-0.471230 -0.050009 -1.690109
-0.471203 -0.051787 -1.689964
-0.471203 -0.050368 -1.689846
-0.471163 -0.050049 -1.689948
-0.471123 -0.050906 -1.689961
-0.471087 -0.048854 -1.689916
-0.471069 -0.048491 -1.689882
-0.471005 -0.048470 -1.690186
-0.471003 -0.051124 -1.690274
-0.471001 -0.051145 -1.689937
-0.470983 -0.049519 -1.689973
-0.470965 -0.051451 -1.689794
-0.470951 -0.048380 -1.690009
-0.470944 -0.049150 -1.689998
-0.470942 -0.048511 -1.689840
-0.470940 -0.051284 -1.690170
-0.470912 -0.051613 -1.690012
-0.470882 -0.051685 -1.689957
-0.470882 -0.049099 -1.689854
-0.470869 -0.051030 -1.689999
-0.470862 -0.051755 -1.689968
-0.470777 -0.051079 -1.689921
-0.470764 -0.049074 -1.689938
-0.470707 -0.049488 -1.690069
-0.470675 -0.049999 -1.689875
-0.470666 -0.050177 -1.689778
-0.470600 -0.050008 -1.690024
-0.470592 -0.049775 -1.689843
-0.470579 -0.050687 -1.689942
-0.470546 -0.052023 -1.690000
-0.470541 -0.051527 -1.690115
-0.470528 -0.050575 -1.690069
-0.470475 -0.048329 -1.689819
-0.470462 -0.050462 -1.689951
-0.470454 -0.050729 -1.689957
-0.470417 -0.051816 -1.689925
-0.470406 -0.048990 -1.690259
-0.470388 -0.050797 -1.689975
-0.470350 -0.048899 -1.689825
-0.470292 -0.049504 -1.689891
-0.470255 -0.049022 -1.689909
-0.470229 -0.051469 -1.690019
-0.470180 -0.050357 -1.690132
-0.470164 -0.051716 -1.689851
-0.470145 -0.049010 -1.689965
-0.470136 -0.049918 -1.689987
-0.470133 -0.051359 -1.690080
-0.470117 -0.051719 -1.690137
-0.473876 -0.046188 -1.690700
-0.473841 -0.046798 -1.692142
-0.473800 -0.047053 -1.690517
-0.473797 -0.047689 -1.689940
-0.473787 -0.047801 -1.689739
-0.473747 -0.045862 -1.691895
-0.473745 -0.047947 -1.690136
-0.473729 -0.046986 -1.689863
-0.473689 -0.047985 -1.690535
-0.473673 -0.046969 -1.689720
-0.473641 -0.046373 -1.690614
-0.473630 -0.047048 -1.690655
-0.473628 -0.045447 -1.690747
-0.473603 -0.046097 -1.692307
-0.473555 -0.045488 -1.690983
-0.473544 -0.045567 -1.690284
-0.473540 -0.046299 -1.691905
-0.473536 -0.045542 -1.691344
-0.473513 -0.047435 -1.689759
-0.473511 -0.047297 -1.690232
-0.473509 -0.047951 -1.690314
-0.473498 -0.045879 -1.689831
-0.473492 -0.046514 -1.689952
-0.473469 -0.045683 -1.690303
-0.473438 -0.047811 -1.689760
-0.473423 -0.046286 -1.690124
-0.473382 -0.045292 -1.689878
-0.473367 -0.044812 -1.690952
-0.473353 -0.046137 -1.690442
-0.473344 -0.044749 -1.691643
-0.473321 -0.046979 -1.689865
-0.473315 -0.044986 -1.689966
-0.473307 -0.044875 -1.691118
-0.473302 -0.045584 -1.690122
-0.473272 -0.046633 -1.690020
-0.473228 -0.046985 -1.690050
-0.473216 -0.044701 -1.689893
-0.473192 -0.046032 -1.689754
-0.473178 -0.044787 -1.691343
-0.473146 -0.048085 -1.689890
-0.473114 -0.045831 -1.690049
-0.473084 -0.044883 -1.690259
-0.473081 -0.046990 -1.690315
-0.473064 -0.046678 -1.689792
-0.473016 -0.047667 -1.690018
-0.473007 -0.048176 -1.690143
-0.472974 -0.044933 -1.690153
-0.472958 -0.045099 -1.690574
-0.472939 -0.046007 -1.689947
-0.472909 -0.046935 -1.690015
-0.472907 -0.046986 -1.689975
-0.472904 -0.046121 -1.689652
-0.472901 -0.046621 -1.690055
-0.472871 -0.047721 -1.689910
-0.472863 -0.047792 -1.690043
-0.472845 -0.047089 -1.689897
-0.472784 -0.047700 -1.690167
-0.472774 -0.047927 -1.690043
-0.472742 -0.047398 -1.689803
-0.472710 -0.048060 -1.690012
-0.472680 -0.047809 -1.689985
-0.472676 -0.044972 -1.689872
-0.472655 -0.045220 -1.689991
-0.472648 -0.045365 -1.689813
-0.472639 -0.045970 -1.689745
-0.472621 -0.047598 -1.690133
-0.472590 -0.046182 -1.690055
-0.472544 -0.046728 -1.689858
-0.472519 -0.046041 -1.690052
-0.472508 -0.045593 -1.689708
-0.472495 -0.047057 -1.690030
-0.472481 -0.046108 -1.689889
-0.472472 -0.046389 -1.690252
-0.472439 -0.044983 -1.689954
-0.472418 -0.045686 -1.690156
-0.472413 -0.046807 -1.690320
-0.472403 -0.046099 -1.690091
-0.472368 -0.045359 -1.690446
-0.472357 -0.047451 -1.690223
-0.472312 -0.047400 -1.689859
-0.472277 -0.048016 -1.689778
-0.472262 -0.045095 -1.689764
-0.472248 -0.045014 -1.690410
-0.472225 -0.045282 -1.689663
-0.472200 -0.046867 -1.690012
-0.472190 -0.047039 -1.690044
-0.472172 -0.047832 -1.689714
-0.472091 -0.044828 -1.690071
-0.472085 -0.047796 -1.689959
-0.472075 -0.046407 -1.689651
-0.472071 -0.048067 -1.689874
-0.472053 -0.045276 -1.689754
-0.472006 -0.044974 -1.689821
-0.471994 -0.045750 -1.689821
-0.471979 -0.047895 -1.690076
-0.471955 -0.045920 -1.690196
-0.471949 -0.047745 -1.690109
-0.471910 -0.046415 -1.690215
-0.471898 -0.046535 -1.690346
-0.471893 -0.048023 -1.690090
-0.471891 -0.045930 -1.689776
-0.471890 -0.047464 -1.689747
-0.471887 -0.046497 -1.689902
-0.471862 -0.044834 -1.690228
-0.471827 -0.047193 -1.690119
-0.471785 -0.046433 -1.689786
-0.471773 -0.044520 -1.689703
-0.471744 -0.046490 -1.690064
-0.471729 -0.047062 -1.689760
-0.471719 -0.047712 -1.690040
-0.471715 -0.045940 -1.690062
-0.471693 -0.046750 -1.690109
-0.471681 -0.045863 -1.690101
-0.471660 -0.044551 -1.689785
-0.471641 -0.047510 -1.690151
-0.471634 -0.045788 -1.690046
-0.471598 -0.045084 -1.689925
-0.471564 -0.046592 -1.689795
-0.471532 -0.048119 -1.689861
-0.471508 -0.045812 -1.689996
-0.471499 -0.045848 -1.690161
-0.471486 -0.047447 -1.690250
-0.471480 -0.046816 -1.689824
-0.471472 -0.045209 -1.689740
-0.471452 -0.045140 -1.689885
-0.471447 -0.047472 -1.689975
-0.471427 -0.046684 -1.689816
-0.471406 -0.044751 -1.689846
-0.471337 -0.045241 -1.690044
-0.471328 -0.046381 -1.689661
-0.471281 -0.046851 -1.689862
-0.471263 -0.047748 -1.689881
-0.471261 -0.045800 -1.690091
-0.471252 -0.047604 -1.690109
-0.471241 -0.048238 -1.690229
-0.471239 -0.044992 -1.690079
-0.471204 -0.047997 -1.689955
-0.471121 -0.046868 -1.690068
-0.471116 -0.045394 -1.689940
-0.471098 -0.047841 -1.689814
-0.471089 -0.047350 -1.689904
-0.471085 -0.044995 -1.689884
-0.471047 -0.046148 -1.689681
-0.471027 -0.046237 -1.689928
-0.471001 -0.047295 -1.690069
-0.470990 -0.045863 -1.690167
-0.470968 -0.046705 -1.689876
-0.470966 -0.044630 -1.690027
-0.470920 -0.045356 -1.689818
-0.470877 -0.046090 -1.689838
-0.470857 -0.045889 -1.689927
-0.470840 -0.045516 -1.689856
-0.470833 -0.046527 -1.689919
-0.470829 -0.047239 -1.690299
-0.470812 -0.047024 -1.689881
-0.470789 -0.044943 -1.689914
-0.470788 -0.045186 -1.689852
-0.470755 -0.046790 -1.689777
-0.470699 -0.044483 -1.689805
-0.470671 -0.047194 -1.689806
-0.470663 -0.046322 -1.689933
-0.470642 -0.048109 -1.689931
-0.470641 -0.045632 -1.689933
-0.470627 -0.047269 -1.689943
-0.470581 -0.046442 -1.690168
-0.470572 -0.047426 -1.690050
-0.470566 -0.044800 -1.689997
-0.470563 -0.045689 -1.689972
-0.470555 -0.045224 -1.689792
-0.470525 -0.047798 -1.689795
-0.470513 -0.045448 -1.689998
-0.470512 -0.048204 -1.689978
-0.470498 -0.044794 -1.689745
-0.470456 -0.044870 -1.689700
-0.470432 -0.046401 -1.689696
-0.470396 -0.045692 -1.690127
-0.470379 -0.045110 -1.689830
-0.470332 -0.048277 -1.690103
-0.470326 -0.046609 -1.690053
-0.470319 -0.045665 -1.690074
-0.470301 -0.047396 -1.689840
-0.470294 -0.046537 -1.689855
-0.470293 -0.047338 -1.689852
-0.470280 -0.045972 -1.689734
-0.470277 -0.046649 -1.689895
-0.470268 -0.045021 -1.689919
-0.470196 -0.047361 -1.689948
-0.470163 -0.047843 -1.690218
-0.470149 -0.045990 -1.689710
-0.470124 -0.044504 -1.689761
-0.470115 -0.044776 -1.689891
-0.470108 -0.047083 -1.689751
-0.472977 -0.044180 -1.690238
-0.472972 -0.044197 -1.689656
-0.472879 -0.043461 -1.692433
-0.472850 -0.044297 -1.691228
-0.472814 -0.043707 -1.690906
-0.472799 -0.044433 -1.690163
-0.472787 -0.043565 -1.690755
-0.472748 -0.043345 -1.690372
-0.472738 -0.044342 -1.690524
-0.472719 -0.043476 -1.691997
-0.472687 -0.044087 -1.691866
-0.472687 -0.044246 -1.692611
-0.472673 -0.043546 -1.692418
-0.472590 -0.043991 -1.690826
-0.472579 -0.043480 -1.690627
-0.472551 -0.043662 -1.690042
-0.472523 -0.042777 -1.690534
-0.472494 -0.044424 -1.689762
-0.472489 -0.043384 -1.691973
-0.472485 -0.044064 -1.690352
-0.472456 -0.042119 -1.691046
-0.472434 -0.042947 -1.690712
-0.472376 -0.043519 -1.690107
